ply
format ascii 1.0
comment Simplified point cloud with 919 points
element vertex 919
property float x
property float y
property float z
property uchar red
property uchar green
property uchar blue
property uchar alpha
end_header
0.378972 -1.000000 1.000000 194 194 194 185
-0.576710 -0.867839 0.117882 246 246 246 211
-0.732071 0.021201 0.823812 255 255 255 255
-0.706747 0.390739 -0.749012 253 253 253 229
-0.957706 -0.218497 0.534363 255 255 255 255
-0.984001 -0.227228 -0.476938 255 255 255 255
-0.552612 0.508896 -0.716668 248 248 248 255
-0.645794 0.294875 -0.832169 253 253 253 143
-0.807751 0.478411 -0.740799 255 255 255 255
-0.706330 0.407807 0.775946 255 255 255 255
-0.652253 0.407292 -0.204485 199 199 199 60
-0.748982 0.128390 0.869435 255 255 255 255
-0.903324 0.570150 -0.556110 255 255 255 247
-0.249996 0.627816 0.388215 211 211 211 13
-0.554818 -0.014630 0.815447 137 137 137 44
-0.871045 0.490938 -0.497902 255 255 255 255
-0.619396 0.438000 -0.428053 210 210 210 255
-0.652428 -0.517028 0.765629 254 254 254 47
-0.920099 0.617720 0.515979 225 225 225 40
-0.990769 0.678016 0.471036 255 255 255 242
-0.597424 0.308714 -0.872366 255 255 255 255
-0.982311 0.192724 -0.909761 255 255 255 127
-0.671052 0.468924 -0.677089 255 255 255 255
-0.758246 0.624159 -0.469143 255 255 255 255
-0.481569 0.582915 -0.562230 148 148 148 255
-0.590194 0.266040 0.835083 255 255 255 2
-0.892374 0.309004 -0.784436 243 243 243 255
-0.754906 0.553675 -0.467542 255 255 255 255
0.359504 0.162562 -0.700264 166 166 166 39
-0.979352 0.296823 0.817666 255 255 255 255
-0.340931 0.347432 -0.486695 144 144 144 255
-0.971670 0.491132 0.565847 255 255 255 255
-0.647600 0.185093 -0.737350 255 255 255 255
-0.561492 0.732123 0.217385 255 255 255 255
-0.564170 0.502688 0.370357 255 255 255 255
-0.829666 0.091100 0.890079 255 255 255 255
-0.679836 -0.504800 -0.586850 78 78 78 255
-0.948072 0.352711 -0.345625 255 255 255 74
-0.701424 0.591651 0.288890 255 255 255 244
-0.469785 -0.363828 -0.836994 255 255 255 195
-0.748237 -0.003740 -0.873413 255 255 255 255
-0.311246 0.473863 -0.789087 238 238 238 83
-0.589960 -0.852511 0.281310 252 252 252 178
-0.901744 -0.212868 -1.000000 255 255 255 255
-0.252628 -0.392126 0.812757 254 254 254 64
-0.994024 0.726008 0.472789 255 255 255 255
0.172676 0.814200 -0.292687 255 255 255 232
-0.180427 0.505973 0.539418 191 192 191 28
-0.988858 0.474018 0.785331 255 255 255 255
-0.463552 0.675146 0.436407 227 227 227 243
-1.000000 0.500652 0.784967 247 247 247 168
-0.579566 0.128859 -0.784023 255 255 255 255
-0.971223 -0.245460 -0.495738 255 255 255 77
-0.770111 0.371022 -0.849236 219 219 219 255
-0.814957 -0.079535 -0.191094 216 215 216 28
-0.671010 0.205911 0.817740 255 255 255 255
-0.598329 0.363828 -0.614729 158 158 158 37
-0.686533 0.561304 0.432277 254 254 254 255
-0.903946 0.115106 -0.910620 255 255 255 255
-0.843199 0.680456 -0.521921 255 255 255 104
-0.637843 0.672253 -0.159135 255 255 255 255
-0.625963 0.505170 0.712416 255 255 255 255
-0.858420 -0.473628 -0.792048 254 254 254 173
-0.999185 0.031162 -0.449653 255 255 255 30
-0.562021 0.835115 -0.262305 242 242 242 152
-0.992146 0.369220 -0.392416 255 255 255 255
-0.715886 0.606044 0.513573 255 255 255 75
-0.556138 0.824513 0.281257 255 255 255 20
-0.992329 0.299530 0.851652 255 255 255 103
0.299890 0.580513 -0.503780 255 255 255 255
-0.801336 0.335824 -0.157727 233 233 233 52
-0.543407 0.600502 -0.280028 252 252 252 255
-0.700116 0.523977 0.347303 255 255 255 255
-0.804099 0.475594 0.432895 255 255 255 60
-0.566161 0.195195 -0.801535 255 255 255 49
-0.721980 0.626763 -0.242208 255 255 255 255
-0.558438 -0.374045 0.840198 253 253 253 10
-0.064274 0.806480 0.484138 255 255 255 255
-0.702646 0.553153 -0.387794 255 255 255 255
-0.232569 0.357470 0.466340 160 160 160 31
-0.503921 0.607980 0.449160 255 255 255 255
-0.967453 0.768716 -0.004229 196 196 196 232
-0.973153 -0.219266 -0.418320 255 255 255 255
-0.921060 -0.008686 -0.466602 255 255 255 72
-0.907485 0.349036 -0.881781 255 255 255 207
-0.946444 0.013094 -0.454137 255 255 255 255
-0.897478 0.027778 0.449882 253 253 253 105
-0.123162 -0.689064 0.098889 201 202 201 101
-0.838234 0.083426 -0.903362 255 255 255 255
-0.837083 0.359643 -0.670426 139 139 139 60
-0.806265 0.113730 0.884281 255 255 255 184
-0.693028 -0.247149 1.000000 255 255 255 129
-0.607131 0.218047 -0.834326 255 255 255 255
-0.823436 0.292417 -0.174655 248 248 248 67
-0.908778 0.018944 -0.435673 255 255 255 250
-0.924511 0.068976 -0.941517 238 238 238 151
-0.701156 0.558683 -0.416126 255 255 255 255
-0.688594 0.577302 0.228867 255 255 255 26
-0.946001 0.429007 -0.453180 255 255 255 255
-0.994312 0.035350 -0.462688 255 255 255 255
-0.775932 0.547089 0.454330 255 255 255 208
-0.812094 0.122966 -0.827812 255 255 255 255
-0.492384 -0.622701 -0.656473 255 255 255 124
-0.623360 0.470458 -0.736516 253 253 253 255
-0.824498 0.220027 -0.902965 255 255 255 255
-0.963056 0.363697 -0.759104 204 204 204 40
-0.991904 0.041893 -0.405100 255 255 255 255
-0.553682 0.455640 0.836886 254 254 254 3
-0.530590 0.602508 -0.370007 255 255 255 175
-0.943210 0.556878 -0.709751 245 245 245 255
-0.875587 0.520660 0.715382 255 255 255 255
-0.776303 0.043846 -0.889465 255 255 255 146
-0.709179 0.629543 -0.196766 255 255 255 30
-0.552523 0.583113 0.366468 255 255 255 255
-0.557334 0.565948 0.317066 255 255 255 255
-0.966270 0.550660 0.592725 254 254 254 167
-0.985578 0.491284 -0.806332 255 255 255 131
-0.828925 0.258938 -0.176451 228 228 228 3
-0.790068 0.563887 -0.664442 255 255 255 255
-0.995440 0.652267 0.530626 255 255 255 255
-0.998907 -0.224017 0.033065 160 160 160 49
-0.914791 0.168172 0.908741 255 255 255 255
-0.997371 0.354562 0.364743 255 255 255 255
-0.699842 0.604312 0.583241 252 252 252 24
-0.729788 0.354318 0.874176 255 255 255 255
-0.742182 0.647452 -0.225921 255 255 255 255
-0.238181 0.052400 -0.409048 137 137 137 91
-0.595122 0.565871 -0.374239 255 255 255 255
-0.854545 0.330567 0.878182 255 255 255 255
-0.998134 0.766197 -0.271709 255 255 255 255
-0.921613 0.660718 -0.629801 255 255 255 255
-0.942829 0.516343 0.536649 255 255 255 255
-0.981894 0.615811 -0.680414 223 223 223 255
0.236794 0.659032 0.477418 255 255 255 255
-0.649649 0.496294 0.268184 255 255 255 91
-0.541813 0.105234 -0.817598 255 255 255 255
-0.970817 -0.097667 -1.000000 255 255 255 67
-0.543446 -0.827871 -0.395993 255 255 255 77
-1.000000 -0.339027 0.208241 249 249 249 4
-0.990076 0.028722 0.464522 255 255 255 255
-0.989079 -0.425546 -0.830399 255 255 255 255
-0.996673 0.337547 0.844091 255 255 255 255
-0.831812 0.155651 -0.810136 246 246 246 255
-0.034504 -0.199116 -0.168446 181 181 181 181
-0.629282 0.397933 -0.839484 255 255 255 255
-0.610276 0.496714 -0.691309 255 255 255 179
-0.511716 0.606200 0.448682 255 255 255 255
-0.709096 0.395256 0.434730 247 247 247 255
-0.729586 0.476900 0.745329 255 255 255 255
-0.734503 0.583897 0.393160 255 255 255 255
-0.965573 0.664407 0.527239 255 255 255 255
-0.634745 0.873012 -0.061476 237 237 237 23
-0.704129 0.210468 -0.717340 255 255 255 118
-0.780548 -0.224032 0.561895 171 171 171 74
-0.885430 0.093944 0.877771 255 255 255 26
-0.764439 0.376850 0.245015 221 221 221 67
-0.567518 0.597349 0.407559 255 255 255 255
-0.902876 0.544001 0.754532 255 255 255 255
-0.910606 0.214389 -0.913491 255 255 255 235
-0.732164 0.667240 -0.199725 255 255 255 255
-0.562854 0.573603 -0.371894 255 255 255 255
-0.645138 0.276341 0.819102 255 255 255 20
-0.571274 0.462519 0.321116 255 255 255 255
-1.000000 -0.407197 0.870183 246 246 246 97
-0.810930 0.464256 0.424286 249 249 249 61
-0.989558 0.486229 0.523821 250 250 250 211
-0.868740 0.599213 -0.707301 254 254 254 143
-0.695846 0.453211 -0.692166 250 250 250 3
-0.978471 -0.307630 0.370449 254 254 255 159
-0.613919 0.166249 -0.795646 255 255 255 255
-0.720829 0.570516 -0.420145 255 255 255 255
-0.512646 0.303812 -0.853377 254 254 254 255
-0.767111 0.648898 0.238382 252 252 252 255
-0.973686 0.059855 -0.717988 255 255 255 255
-0.987618 0.563445 -0.672292 255 255 255 25
-0.709293 0.355291 0.777896 255 255 255 255
-0.910312 0.379379 -0.793368 245 245 245 255
-0.758286 0.329110 0.316632 215 215 215 255
-0.667470 0.579254 -0.387710 255 255 255 255
-0.979241 0.436893 0.786035 217 217 217 27
-0.652354 0.423338 -0.235998 249 249 249 64
-0.847844 0.135727 0.854724 255 255 255 255
-0.962735 0.545294 -0.676807 255 255 255 26
-0.987955 0.403227 -0.773765 255 255 255 100
-0.509705 0.577660 -0.429642 255 255 255 255
-0.972321 0.136208 -0.885314 251 251 251 255
-0.218929 0.709636 -0.097076 187 187 187 2
-0.835946 0.780456 -0.018177 199 199 199 40
-0.665709 0.339884 -0.857637 255 255 255 255
-0.863466 0.592692 0.647981 255 255 255 255
-0.608654 0.631511 -0.253933 255 255 255 255
-0.744576 0.181546 -0.863298 255 255 255 129
-0.906809 0.252082 0.883837 255 255 255 93
-0.723983 0.318606 -0.811720 252 252 252 157
-0.845015 0.052765 0.299985 227 227 227 147
-0.525515 -0.715041 -0.561251 250 250 250 5
-0.344227 -0.080372 0.220494 179 179 179 12
-0.558975 0.231107 -0.812247 251 251 251 255
-0.306953 -0.156492 0.336208 209 209 209 9
0.425496 -0.276787 0.722836 247 247 247 22
-0.710587 0.048991 -0.312330 192 192 192 24
-0.168228 -0.506823 -0.742554 255 255 255 243
-0.628467 -0.820790 0.395875 237 237 237 177
-0.959311 0.007558 0.469322 255 255 255 255
-0.769249 0.505053 -0.717033 253 253 253 255
-0.818858 0.371349 0.377537 255 255 255 255
-0.424440 0.232906 0.060777 222 223 223 49
-0.993921 0.380291 -0.453082 255 255 255 255
-0.826794 0.532736 -0.750658 255 255 255 234
-0.896843 0.854161 -0.013774 195 195 195 43
-0.710846 0.597012 -0.508747 254 254 254 255
-0.560145 0.578959 -0.213770 255 255 255 255
-0.732799 0.320705 -0.824554 249 249 249 206
-0.607228 0.455661 -0.335334 136 136 136 224
-0.970091 0.463350 -0.445924 255 255 255 255
-0.124507 0.914179 0.199955 255 255 255 255
-0.848204 0.475211 -0.461368 254 254 254 222
-0.494839 0.588255 0.573515 174 174 174 56
-0.544840 0.635807 -0.261624 255 255 255 255
-0.732252 0.565455 0.406512 252 252 252 43
-0.998233 0.749219 -0.295814 255 255 255 255
-0.641313 0.338852 -0.757567 248 248 248 47
-0.779313 0.274351 0.904371 176 176 176 72
-0.978688 0.457843 0.803029 236 236 236 255
-0.672744 0.541361 -0.361982 255 255 255 255
-0.910817 0.491789 0.608257 255 255 255 255
-0.572527 0.543274 0.220554 255 255 255 255
-0.651266 0.348654 0.801077 255 255 255 62
-0.480751 0.436919 0.773353 255 255 255 255
-0.774586 0.688011 0.202846 255 255 255 255
-0.992629 0.014273 -0.460036 255 255 255 91
-0.560667 0.189543 -0.884786 255 255 255 255
-0.743011 0.660846 -0.208814 255 255 255 255
-0.686496 0.694234 0.153235 255 255 255 255
-0.495062 0.609343 -0.659351 252 252 252 255
-0.975438 0.397340 0.445768 255 255 255 255
-0.984518 0.719658 -0.450923 255 255 255 255
-0.529172 0.621049 0.264400 255 255 255 173
-0.771086 0.219329 -0.826011 249 249 249 255
-0.212187 0.727629 0.302508 211 211 211 65
-0.520780 0.677074 0.246792 255 255 255 255
-0.642646 0.270871 0.876668 254 254 254 255
-0.765129 0.638135 0.233801 255 255 255 156
-0.724273 0.760480 -0.214644 150 150 150 59
-0.537204 0.674277 -0.221056 255 255 255 31
-0.787363 0.551075 0.444436 255 255 255 203
-0.788851 0.320417 0.152067 220 220 220 10
0.118102 -0.590330 0.096323 197 197 197 183
-0.146030 -0.316699 -0.378485 179 179 179 0
-0.135698 -0.421230 0.082863 204 204 204 13
-0.577515 0.443442 0.394330 247 247 247 89
-0.574263 0.570289 -0.404016 255 255 255 255
-0.256735 -0.771502 -0.057563 209 209 209 124
-0.774714 0.434470 0.680393 254 254 254 255
-0.996851 0.187872 0.909288 255 255 255 255
-0.890417 0.483553 -0.525982 249 249 249 198
-0.525306 0.473297 -0.481670 197 197 197 184
-0.856289 0.586337 0.550380 193 193 193 255
-0.837865 0.224281 0.870239 255 255 255 77
-0.701960 0.334142 -0.828007 255 255 255 27
0.182165 0.599106 0.271813 122 122 122 86
-0.603708 0.417884 0.762172 255 255 255 107
-0.667287 0.173623 0.806949 255 255 255 255
-0.954471 0.389973 -0.751534 253 253 253 255
-0.898411 0.192084 -0.832368 255 255 255 255
-0.970510 0.452803 0.439859 252 252 252 255
-0.993476 0.711432 -0.263359 254 254 254 129
-1.000000 0.646301 -0.408556 255 255 255 156
-0.923855 0.075552 -1.000000 246 246 246 64
-0.606041 0.434248 0.772276 255 255 255 65
-0.650018 0.592654 0.254343 255 255 255 255
-0.738231 0.626647 0.222275 255 255 255 255
-0.650721 0.448647 0.448842 233 233 233 255
-0.647653 0.497954 -0.326676 255 255 255 255
-0.566827 0.201648 -0.775882 255 255 255 1
-0.531131 0.695014 0.016064 255 255 255 255
-0.719588 -0.057485 0.899731 218 218 218 3
-0.673895 0.285692 0.807014 253 253 253 255
-0.899189 0.278920 0.835001 255 255 255 255
-0.716495 0.631899 0.257912 255 255 255 255
-0.743616 0.577235 -0.385140 255 255 255 255
-0.568999 0.495353 0.331775 255 255 255 255
-0.316072 0.632425 0.650552 111 111 111 27
-0.514702 0.567381 -0.395459 255 255 255 161
-0.513271 0.803016 0.315429 230 230 230 87
-0.669732 0.353728 0.215534 239 239 239 164
-0.572568 0.524247 0.355632 255 255 255 46
0.182911 0.663954 -0.524198 250 250 250 198
-0.986689 -0.224090 0.393505 254 254 254 96
-0.954807 -0.237085 0.398241 239 239 239 93
-0.766133 0.241955 -0.837474 255 255 255 255
0.181857 -0.623535 -0.321981 183 183 183 31
-1.000000 -0.075194 -1.000000 179 179 179 4
-0.653016 0.421972 -0.390156 205 205 205 132
0.145535 -0.582676 -0.041471 208 208 208 6
0.306077 0.735390 0.325722 255 255 255 255
0.059251 -0.611087 0.636518 238 238 238 6
0.653296 -0.265878 -0.136651 196 196 196 48
-0.555656 0.283520 0.819994 255 255 255 255
-0.641190 0.412456 -0.819994 255 255 255 255
-0.776284 0.373693 0.242113 254 254 254 250
-0.909910 0.114890 -0.876769 255 255 255 255
-0.996243 0.636171 -0.467396 250 250 250 255
-0.364328 0.534963 0.792720 235 235 235 9
-0.970565 0.539983 -0.680027 248 248 248 255
-0.628584 0.487481 0.280360 255 255 255 255
-0.939656 0.549883 0.745822 255 255 255 180
-0.506323 0.621622 0.266892 255 255 255 255
-0.874179 0.187010 0.898963 255 255 255 255
-0.957050 -0.159431 1.000000 255 255 255 255
-0.673917 0.190885 0.853598 255 255 255 255
-0.970992 0.347473 -0.337445 255 255 255 7
-0.539994 0.230272 0.042565 225 225 225 159
-0.701586 0.230877 0.899600 255 255 255 112
-0.949535 -0.023103 -0.462100 254 254 254 79
-0.810945 0.352564 -0.353887 255 255 255 255
-0.137648 0.626009 -0.053857 131 131 131 20
-0.543832 0.499316 -0.363303 255 255 255 255
-0.638403 0.514965 -0.251391 252 252 252 255
-0.570522 0.521207 -0.355257 255 255 255 255
-0.825634 0.434665 -0.651614 255 255 255 255
-0.993342 0.664615 -0.435916 255 255 255 187
-0.554528 0.598670 0.492304 223 223 223 209
-0.991672 0.389216 0.421668 255 255 255 135
-0.948554 0.624617 -0.654438 244 244 244 118
-0.767951 0.375765 -0.261400 244 244 244 234
-0.213196 0.742219 0.625676 255 255 255 255
-0.734213 0.678878 0.188331 255 255 255 136
-0.630593 0.372529 -0.812113 255 255 255 13
-0.564654 0.630776 0.270914 255 255 255 255
-0.511496 0.599408 -0.239236 255 255 255 115
-0.766669 0.256853 -0.866554 255 255 255 106
-0.801782 0.466583 -0.447794 253 253 253 255
-0.733801 0.680816 0.169710 255 255 255 255
-0.869827 0.488256 -0.601308 255 255 255 255
-0.984241 -0.250376 0.460921 251 251 251 255
-0.684488 0.223481 -0.784649 252 252 252 255
-0.157306 -0.566345 0.139776 208 208 208 26
-0.992525 -0.999198 0.993546 126 126 126 196
-0.934886 0.368213 -0.800261 240 240 240 255
-0.017649 0.629652 0.677791 255 255 255 141
-0.095347 -0.643063 0.097021 193 193 193 75
-0.824599 0.172855 -0.903373 255 255 255 239
-0.994729 -0.240376 0.507066 255 255 255 255
-0.598873 0.379416 0.806424 255 255 255 255
-0.603735 -0.410635 -0.816628 252 252 252 255
-0.870684 -0.694251 0.567852 246 246 246 71
-0.376119 -0.037602 -0.148843 195 195 195 69
-0.910797 -0.218744 -0.546292 226 225 226 22
-0.834918 0.094370 0.864826 255 255 255 255
-0.794699 0.583412 0.652400 255 255 255 255
-0.908090 -0.402372 -0.783817 207 207 207 199
-0.457793 0.699771 -0.276160 254 254 254 57
-0.671083 0.364100 0.769876 255 255 255 255
-0.791868 0.355397 -0.398696 255 255 255 255
-0.677224 0.418456 -0.511684 135 135 135 7
0.225571 0.623585 -0.528635 254 254 254 98
-0.947896 0.034432 0.454710 255 255 255 255
-0.623724 0.245796 -0.754397 255 255 255 255
-0.983296 0.594452 -0.720642 243 243 243 70
-0.969015 0.510517 -0.506930 245 245 245 79
-0.767281 0.584458 -0.481906 248 248 248 24
-0.683237 0.647587 0.160003 255 255 255 255
-0.680432 0.582450 0.408128 255 255 255 255
-0.903892 0.547199 -0.608924 150 150 150 26
-0.546257 0.577737 -0.322695 255 255 255 255
-0.207137 0.356108 -0.836881 249 249 249 25
-0.546548 0.665359 -0.231459 255 255 255 255
-0.609792 0.458168 -0.360800 111 111 111 43
-0.766381 0.091142 0.798007 223 223 223 255
-0.119164 0.161945 0.001603 218 218 218 117
-0.978792 0.343777 0.348929 208 208 208 15
-0.301975 0.330691 -0.481747 175 175 175 22
-0.510946 0.642978 -0.254304 255 255 255 255
-0.593017 0.583413 0.228758 255 255 255 215
0.382810 0.677915 0.130874 76 76 76 133
-0.999364 0.003085 0.455722 255 255 255 255
-0.766039 0.169575 -0.321288 172 172 172 106
-0.559307 0.572522 -0.387942 255 255 255 255
-0.592843 0.592099 -0.190866 126 126 126 94
-0.828035 0.372384 0.313805 252 252 252 255
-0.495625 0.581457 -0.225250 255 255 255 1
-0.813975 0.285761 0.637475 208 208 208 81
-0.353247 -0.757293 0.221725 218 219 219 33
-0.058279 -0.678018 0.323162 203 203 203 17
-0.797715 -0.638147 -0.115092 236 236 236 166
-0.941830 -0.489661 -0.771979 250 250 250 31
-0.078936 -0.704349 -0.568337 255 255 255 203
-0.640808 0.401880 -0.746142 244 244 244 8
0.061319 -0.523902 -0.703373 255 255 255 111
-0.831079 -0.072226 0.193666 206 206 206 48
-0.777735 0.608893 0.494231 255 255 255 255
-0.533922 0.606968 0.448823 255 255 255 255
-0.939992 0.851097 -0.030601 204 204 204 28
-0.270321 0.168532 0.893006 218 218 218 57
-1.000000 0.780697 0.278372 255 255 255 255
-0.620167 0.287341 -0.845079 255 255 255 41
-0.554267 0.228180 -0.012894 252 252 252 144
-0.988086 0.014307 -0.451964 255 255 255 102
-0.612087 0.260203 -0.850674 255 255 255 242
-0.572438 0.607261 0.252453 255 255 255 255
-0.621013 0.281042 -0.808757 253 253 253 191
-0.642450 0.546952 0.349464 255 255 255 255
-0.030492 0.898837 -0.173506 255 255 255 97
-0.610181 0.529544 -0.357253 255 255 255 255
-0.607203 0.595669 0.408191 255 255 255 255
-0.909418 0.618761 0.684647 255 255 255 255
-0.812383 0.639604 -0.437061 255 255 255 255
-0.702078 0.559544 -0.359384 255 255 255 255
-0.608643 0.153580 -0.872711 255 255 255 255
-0.629349 0.611424 0.163859 255 255 255 255
-0.601892 0.520905 -0.339306 255 255 255 172
-0.471743 -0.126912 -0.877614 194 194 194 18
-0.493867 0.676856 -0.235951 255 255 255 255
-0.507863 0.666442 0.476747 100 100 100 1
-0.828304 0.250872 0.820904 255 255 255 255
-0.847729 0.558949 -0.746674 255 255 255 62
-0.675263 0.555334 0.370730 255 255 255 156
-0.711709 0.602782 0.245740 255 255 255 63
-0.672038 0.505870 -0.365852 251 251 251 255
-0.792084 0.254197 0.241648 242 242 242 7
-0.529823 0.716765 -0.219524 255 255 255 255
-0.767659 0.642745 -0.511500 255 255 255 131
-0.962508 0.520238 0.508253 251 251 251 125
-0.976591 -0.306173 -0.367442 254 254 254 225
-0.680174 0.574830 -0.279175 255 255 255 84
-0.990628 0.365631 0.816374 255 255 255 79
-0.319815 0.699445 -0.101650 203 203 203 38
0.553815 -0.181326 -0.346649 213 213 213 87
-0.905846 0.195947 -0.989418 92 92 92 177
-0.981941 -0.210507 -0.435932 255 255 255 255
-0.582665 0.021739 -0.213343 217 217 217 52
-0.972467 0.389687 0.808538 255 255 255 255
-0.959763 -0.240619 -0.459907 252 252 252 255
0.022948 0.750986 -0.504864 254 254 254 38
-0.725992 0.012641 -0.800913 255 255 255 15
-0.533683 0.226212 0.077242 216 216 216 55
-0.522472 0.559683 0.238195 255 255 255 255
-0.478224 0.542689 0.714856 255 255 255 255
-0.847034 0.232436 0.848856 255 255 255 255
-0.942316 0.683678 -0.449954 255 255 255 206
-0.522157 0.496811 0.507374 255 255 255 45
-0.561524 0.346786 -0.781013 212 212 212 134
-0.815810 0.310677 0.269355 232 232 232 43
-0.841878 0.406180 -0.780143 255 255 255 173
-0.672611 0.518256 -0.343771 255 255 255 99
-0.749407 0.111375 -0.882378 255 255 255 182
-0.193894 0.869166 -0.344895 255 255 255 255
-0.915254 0.453832 0.720888 86 86 86 124
-0.483075 0.254905 -0.814784 255 255 255 255
-0.625775 0.448023 0.440231 247 247 247 145
-0.431107 0.677446 0.519519 200 200 200 142
-0.756371 0.263844 -0.314293 201 201 201 239
-0.898054 0.499526 -0.539641 255 255 255 255
-0.453819 0.472379 -0.746366 255 255 255 45
-0.678138 0.118294 -0.848243 255 255 255 211
-0.172265 0.886817 0.315749 255 255 255 255
-0.703211 0.581143 -0.478532 252 252 252 255
-0.479970 0.675711 0.019975 221 221 221 133
-0.607843 0.592173 -0.224679 255 255 255 248
-0.820411 0.367230 -0.832084 255 255 255 255
-0.810349 0.342843 0.178636 255 255 255 255
-0.875202 0.468586 -0.738619 255 255 255 162
-0.473979 0.715774 0.673197 133 133 133 14
-0.783919 0.608786 -0.420041 255 255 255 255
0.829472 -0.212906 0.015782 255 255 255 80
-0.855441 0.137449 -0.856381 255 255 255 151
-0.691536 0.265648 -0.719901 255 255 255 255
-0.978341 -0.486485 -0.760650 255 255 255 199
-0.673163 0.587106 -0.229792 255 255 255 29
-0.615813 0.795090 -0.199779 242 242 242 72
-0.627945 0.388145 -0.726766 255 255 255 255
-0.533744 0.923022 0.052442 145 145 145 76
-0.897934 0.039198 0.890701 255 255 255 255
-0.806941 0.183876 0.830012 255 255 255 198
-0.933438 0.553869 -0.575499 254 254 254 53
-0.861050 0.149406 0.877511 255 255 255 255
-0.937409 0.469990 -0.583801 255 255 255 255
-0.954199 0.410903 -0.443968 254 254 254 255
-0.699009 0.426092 0.420772 232 233 232 255
-0.704106 0.625399 0.236071 255 255 255 255
-0.973398 0.672242 0.581604 255 255 255 255
-0.877002 0.359219 0.293053 255 255 255 89
-0.613731 0.594148 0.514627 255 255 255 77
-0.455955 0.443245 -0.748186 255 255 255 255
-0.662835 0.797226 -0.377604 167 167 167 81
-0.936942 0.498495 -0.481277 252 252 252 255
-0.718080 0.342520 -0.797188 255 255 255 255
-0.556094 0.676578 0.241309 255 255 255 106
-0.955207 0.289747 0.852062 255 255 255 255
0.159765 0.602512 0.605305 255 255 255 255
-0.484480 0.779034 -0.230456 240 240 240 21
-0.666186 0.643939 -0.160837 255 255 255 255
-0.992229 0.662879 -0.533558 246 246 246 255
-0.716231 0.603668 -0.499855 251 251 251 255
-0.042956 0.917079 -0.166805 235 235 235 20
-0.942082 0.606588 0.702924 254 254 254 255
0.082732 0.405028 0.493179 204 204 204 42
-0.788431 0.862013 -0.089821 249 249 249 57
-0.724904 0.595148 0.514253 252 252 252 255
-0.045191 0.422815 0.121813 181 181 181 37
-0.674161 0.106718 0.886518 255 255 255 255
-0.800432 0.183755 -0.798353 247 247 247 255
0.724280 -1.000000 1.000000 230 230 230 35
-0.821449 -0.647232 0.021957 205 205 205 58
-0.572647 -0.844847 -0.323545 255 255 255 43
-0.835523 0.149901 0.860892 255 255 255 255
-0.480474 -0.109656 0.825758 170 170 170 54
-0.663749 0.092512 -0.862613 255 255 255 255
-0.947665 -0.283279 -0.806176 187 187 187 177
-0.571899 0.386867 0.776650 255 255 255 255
-0.998879 0.752293 0.227091 185 185 185 209
-0.609870 0.621936 0.256567 255 255 255 255
0.432633 0.160023 0.685253 214 214 214 35
-0.853388 0.601853 0.543021 244 244 244 75
0.120667 -0.026524 0.873112 255 255 255 126
-0.528466 0.549584 -0.397712 255 255 255 255
-0.952757 0.640757 -0.537907 255 255 255 255
-0.642444 0.511124 -0.301154 255 255 255 208
-0.106034 0.372935 -0.602569 189 189 189 22
-0.553305 0.514144 -0.317287 255 255 255 255
-0.491730 0.567003 0.423927 255 255 255 219
-0.996980 0.421748 0.437172 254 254 254 114
-0.970782 0.683463 0.589041 255 255 255 187
-0.487600 0.819225 0.527556 241 241 241 21
-0.969558 -0.244902 0.408768 252 252 252 46
-0.681068 0.363310 -0.200439 237 237 237 81
-0.672322 0.198432 0.862504 245 245 245 255
-0.561972 0.020441 0.700583 147 147 147 137
0.515546 0.391843 -0.461878 251 251 251 30
-0.564022 -0.601215 -0.678305 255 255 255 255
-0.617823 0.517987 0.718118 255 255 255 255
-0.761937 0.229315 0.840438 255 255 255 255
-0.717927 0.376923 -0.812118 255 255 255 51
-0.927182 0.463324 0.457209 254 254 254 255
-0.772103 0.673709 -0.235301 255 255 255 255
-0.695445 0.470519 0.704444 254 254 254 240
-0.759686 0.614311 0.459877 255 255 255 255
-0.685512 0.644555 -0.234098 255 255 255 192
-0.612834 0.609572 0.243933 255 255 255 228
-0.478549 0.443009 -0.610549 155 155 155 56
-0.886304 0.123384 0.876703 255 255 255 59
0.186422 0.509863 -0.653539 255 255 255 255
-0.805803 0.270452 -0.258955 205 205 205 119
-0.519703 0.607759 0.660340 255 255 255 255
-0.814509 0.476639 0.445842 255 255 255 255
-0.566043 0.487398 -0.322919 255 255 255 255
-0.664733 0.409721 -0.427885 225 225 225 14
-0.681153 0.588988 0.287488 255 255 255 255
-0.566299 0.533006 -0.211823 255 255 255 255
0.934522 -1.000000 0.611712 255 255 255 217
0.520115 0.283047 0.540646 250 250 250 255
0.263552 -0.597185 0.184691 202 202 202 4
0.070502 -0.638203 -0.599061 254 254 254 143
-0.198015 -0.508066 -0.033046 161 161 161 130
0.670634 0.156573 -0.398272 255 255 255 255
0.322564 0.114790 -0.458575 187 187 187 58
0.051309 -0.126812 -0.210519 89 89 89 255
-0.796275 0.258400 -0.263044 186 186 186 6
-0.832766 -0.032196 -0.920096 234 234 234 38
-0.565710 0.114910 0.833779 255 255 255 255
-0.536781 0.812988 -0.246589 210 210 210 24
0.650474 -0.383478 -0.411065 255 255 255 159
-0.946556 0.746213 0.105661 214 214 214 50
-0.677441 0.499967 0.366847 255 255 255 255
-0.900758 0.409307 0.876738 118 118 118 248
-0.229364 0.792311 -0.539560 255 255 255 126
-0.733491 0.675615 0.199309 255 255 255 255
-0.763925 0.121282 -0.876203 255 255 255 255
-0.713660 0.493282 0.709925 255 255 255 255
-0.567320 0.459049 0.500814 252 252 252 10
0.335044 0.631639 0.401693 255 255 255 255
1.000000 -1.000000 -0.480554 195 195 195 154
-0.005394 -0.113483 -0.018986 183 183 183 255
-0.034412 -0.233919 0.035610 191 191 191 31
-0.842060 0.124280 -0.834138 255 255 255 176
-0.019470 0.662499 -0.621780 255 255 255 7
-0.854173 0.460592 0.813153 255 255 255 255
0.203069 0.077956 -0.818614 255 255 255 144
-0.758075 0.578242 -0.594259 222 222 222 176
-0.996018 0.178724 -0.840418 250 250 250 159
-0.817308 0.174227 0.851934 255 255 255 255
-0.588464 0.827143 0.257159 251 251 251 155
-0.669065 0.208631 -0.802063 255 255 255 222
-0.984319 -0.293316 0.381979 231 231 231 59
-0.161012 0.534191 -0.526441 193 193 193 66
-0.882426 0.235815 0.868913 255 255 255 42
0.156082 0.611758 -0.342867 187 186 187 22
-0.673946 0.250443 0.756334 255 255 255 69
-0.297996 0.375236 -0.462019 201 201 201 39
-0.063481 0.414050 0.407277 182 182 182 27
-0.373491 -0.416652 0.801665 254 254 254 170
-0.619792 0.457917 -0.701727 255 255 255 255
-0.375079 0.543802 0.556431 188 188 188 6
0.427052 0.335078 -0.598877 246 246 246 63
1.000000 -1.000000 -1.000000 122 122 122 38
-0.741142 -0.720750 -0.551249 234 234 234 91
-0.525568 -0.772526 -0.492066 255 255 255 201
-0.703803 0.112491 0.850795 255 255 255 255
-0.626430 0.192398 0.775378 255 255 255 255
-0.727362 0.551617 -0.415693 253 253 253 195
-0.657956 0.419462 0.779025 255 255 255 219
-0.588298 0.519735 0.376970 255 255 255 255
-0.551884 0.333504 -0.488833 147 147 147 27
-0.956859 0.464176 -0.548862 254 254 254 90
-0.556691 0.432332 -0.270948 246 246 246 108
-0.900655 0.511014 -0.536462 255 255 255 255
-0.603856 0.644952 0.241708 255 255 255 208
-0.712085 0.494514 -0.699628 254 254 254 255
-0.712436 0.554316 0.458193 249 249 249 255
-0.711467 0.629251 0.188841 255 255 255 255
-0.219858 0.607458 -0.468994 195 195 195 60
0.664139 0.033517 0.147915 182 182 182 90
-0.105390 -0.736521 0.129144 190 190 190 34
-0.601215 -0.863389 0.011655 254 254 254 73
-0.554579 0.124016 0.891906 247 247 247 255
0.476828 0.545378 -0.338566 255 255 255 255
-0.875903 0.408918 0.828944 255 255 255 255
-0.445516 0.562227 -0.689961 255 255 255 255
-0.491596 0.819268 -0.507490 243 243 243 60
0.120764 0.872895 0.186074 255 255 255 255
0.109136 0.302315 0.594105 188 188 188 130
-0.958090 0.368896 0.767835 253 253 253 255
-0.074377 0.724721 -0.158060 193 193 193 24
-0.594000 0.593589 0.231810 255 255 255 255
-0.670193 0.587183 -0.258410 255 255 255 255
-0.689763 0.525095 0.365792 253 253 253 255
-0.501170 0.638929 0.252786 252 252 252 1
0.159399 0.482660 -0.270772 201 201 201 7
-0.782357 0.298116 0.893943 255 255 255 255
-0.454850 0.460851 0.265983 137 137 137 68
-0.610961 0.560475 0.390633 252 252 252 255
-0.998474 0.416280 -0.437752 255 255 255 255
-0.060866 0.216672 -0.669200 159 159 159 110
-0.609997 0.585798 -0.504831 253 253 253 160
1.000000 -1.000000 -0.918360 237 237 237 6
-0.387807 0.404842 -0.814712 255 255 255 255
0.046794 0.658072 0.438572 167 167 167 75
-0.690674 0.321683 0.837089 255 255 255 60
-0.161521 -0.104849 0.842876 156 156 156 23
-0.685611 -0.314720 -0.877244 255 255 255 8
-0.528000 0.655822 0.355460 229 229 229 132
-0.565405 0.560403 -0.374447 255 255 255 80
-0.112877 0.452512 0.619605 203 203 203 49
-0.650184 0.588472 -0.257997 255 255 255 255
-0.514401 -0.213249 0.001998 89 89 89 152
0.057195 0.109788 -0.669957 189 189 189 118
-0.802908 0.136578 -0.820373 255 255 255 255
-0.608130 0.600756 0.426074 255 255 255 179
-0.500042 0.453542 -0.766809 255 255 255 197
-0.260427 0.202331 0.034319 178 178 178 33
0.544212 -0.349938 0.238864 204 204 204 72
0.182968 0.233737 0.618536 205 205 205 85
0.540000 -0.311395 0.327620 167 167 167 61
-0.064524 -0.459154 0.762186 255 255 255 54
0.533873 -0.382579 -0.545348 255 255 255 40
-0.957306 0.308209 0.883760 255 255 255 255
0.103788 0.184148 0.587841 190 190 190 127
-0.552738 0.712111 0.223483 255 255 255 96
-0.849912 0.377956 0.315198 249 249 249 231
-0.636920 0.578762 0.380397 255 255 255 255
0.569989 -0.089695 0.271433 201 201 201 24
-0.525827 0.777553 0.586664 215 215 215 15
-0.589649 -0.340501 0.664207 157 157 157 15
0.377178 0.099402 -0.745200 233 233 233 21
-0.548343 0.334807 0.875331 239 240 239 170
-0.466223 0.653194 -0.449386 202 202 202 178
0.409989 -0.233346 -0.715429 255 255 255 255
-0.866835 0.605584 -0.625150 255 255 255 118
-0.717729 0.631368 -0.218319 255 255 255 170
-0.759532 0.271138 0.370496 205 205 205 74
0.016513 -0.004741 -0.031360 254 254 254 0
-0.797063 0.276610 -0.857745 255 255 255 255
-0.634030 0.659920 0.165661 255 255 255 255
-0.529662 0.591329 -0.427377 255 255 255 39
-0.933853 0.521815 -0.760647 209 209 209 23
-1.000000 0.146716 -0.951298 255 255 255 24
-0.547924 0.657432 0.255733 255 255 255 255
0.631672 0.489016 0.017890 255 255 255 255
-0.581598 0.602837 -0.228187 255 255 255 255
-1.000000 1.000000 0.060011 255 255 255 255
-0.336414 -0.662480 -0.188352 199 199 199 176
1.000000 -1.000000 -0.862833 254 254 254 255
-0.580634 -0.450610 -0.392624 198 198 198 9
0.537182 0.064100 -0.599724 243 243 243 137
0.580111 0.500563 0.227234 255 255 255 255
0.594683 -0.155212 -0.336483 195 195 195 27
-0.157529 -0.607414 -0.678663 255 255 255 255
-0.979485 -0.336295 0.347390 216 216 216 103
-0.887096 -0.150159 0.818314 206 206 206 0
-0.157764 0.658766 0.457061 209 209 209 34
-0.595345 -0.323646 -0.839278 255 255 255 199
0.073217 -0.629964 -0.243909 196 196 196 40
0.724610 0.322260 -0.022938 255 255 255 255
-0.588391 0.337955 0.818276 255 255 255 255
-0.606917 0.699243 -0.170654 255 255 255 255
0.593067 0.518168 -0.153058 255 255 255 255
-0.488398 0.605775 -0.428462 255 255 255 255
-0.530089 0.172351 -0.020310 254 254 254 69
0.491997 -0.093660 -0.493546 213 213 213 115
0.578476 0.442283 -0.303622 255 255 255 112
-0.622847 0.392489 0.778479 255 255 255 212
-0.828655 0.321459 0.265089 255 255 255 255
0.243511 -0.617119 -0.219786 199 199 199 25
0.725787 -0.087437 -0.372534 255 255 255 203
-0.533913 -0.503885 -0.757150 255 255 255 255
-0.928099 0.130740 0.891602 255 255 255 255
-0.101698 -0.409891 -0.791221 255 255 255 159
0.614013 -0.317389 0.271061 187 187 187 134
0.136268 0.736116 0.477332 255 255 255 255
0.515372 0.584192 0.265156 255 255 255 27
-0.733648 0.288973 -0.714072 255 255 255 111
0.539309 0.204526 -0.540111 255 255 255 193
-0.922981 0.383572 0.812370 255 255 255 112
-0.333449 0.677715 0.379099 195 195 195 6
-0.544356 0.581708 -0.389915 255 255 255 255
-0.776303 0.610095 -0.486128 255 255 255 255
0.810000 0.098143 0.069704 216 216 216 3
-0.612916 0.447339 0.205741 212 212 212 73
-0.709907 0.570698 -0.434892 255 255 255 255
-0.680562 0.592608 0.339314 255 255 255 255
0.593185 0.539745 0.082793 255 255 255 255
-0.173963 0.697733 -0.625536 255 255 255 111
-0.717612 0.644189 -0.179863 255 255 255 255
0.782468 -0.061760 -0.275543 255 255 255 255
0.539637 -0.145184 -0.074014 190 190 190 141
0.771452 -0.483625 0.205545 207 207 207 9
0.365929 0.242379 -0.312614 193 193 193 73
-0.364097 -0.487179 0.775152 254 254 254 95
-0.245467 0.106368 -0.558287 174 174 174 26
0.029102 0.855805 -0.303977 255 255 255 82
-0.015689 0.397224 0.572088 179 179 179 121
-0.556290 0.514371 -0.323341 255 255 255 255
0.419145 -0.449417 0.160785 211 211 211 11
0.559669 -0.237623 -0.068873 180 180 180 165
-0.316479 -0.812316 -0.437232 255 255 255 27
-0.096276 -0.698489 -0.297194 227 227 227 3
0.799238 0.036207 0.144255 246 246 246 255
-0.916647 0.329008 0.250223 211 211 211 11
-0.411443 -0.642707 0.665857 255 255 255 169
-0.528593 0.362580 -0.806503 255 255 255 255
-0.805597 0.144859 0.776391 253 253 253 255
-0.569186 -0.561289 0.725434 255 255 255 142
-0.695263 0.620350 0.224929 255 255 255 186
-0.316313 0.797683 -0.547844 255 255 255 107
-0.829107 0.650116 0.367393 255 255 255 58
-0.654619 0.473796 0.302531 255 255 255 255
-0.427058 0.229335 -0.001785 204 204 204 21
0.152357 0.816560 0.312409 255 255 255 255
-0.085224 0.733352 -0.331775 174 174 174 35
0.938087 -1.000000 0.972615 233 233 233 128
0.208682 -0.632657 0.136182 209 209 209 0
-0.588311 0.537222 0.364356 255 255 255 82
0.432663 -0.129180 -0.709447 253 253 253 13
0.101057 -0.208833 -0.145057 176 176 176 19
0.572726 -0.227062 -0.297205 205 205 205 26
0.449892 -0.259970 -0.035855 183 183 183 10
-0.859446 -0.250120 0.864902 205 205 205 215
0.438197 0.653884 0.235040 232 232 232 255
-0.686225 0.560207 -0.393674 255 255 255 181
0.191210 0.736699 -0.412810 255 255 255 255
0.245794 0.809481 -0.163596 254 254 254 255
0.441397 -0.425070 0.391102 185 185 185 53
-0.623284 0.554878 -0.381630 255 255 255 255
-0.059039 0.136074 0.489757 181 181 181 47
-0.128634 -0.490759 0.113505 198 198 198 5
0.651330 -0.079916 -0.500462 255 255 255 255
-0.539198 -0.310749 -0.855153 255 255 255 255
0.464780 -0.471483 0.232586 202 202 202 79
0.345279 0.142085 0.726896 184 184 184 10
0.269347 0.004755 0.830776 235 235 235 208
0.367100 0.378015 0.650468 255 255 255 133
0.354780 0.119006 0.768233 253 253 253 75
-0.655379 0.581021 -0.339039 255 255 255 255
-0.213515 0.525155 0.588338 198 198 198 87
-0.736694 0.569671 0.371571 255 255 255 255
0.685672 0.331948 -0.248957 255 255 255 255
-0.739730 0.538438 0.405664 254 254 254 255
0.465049 0.666112 0.072300 255 255 255 6
0.793249 -0.361308 -0.028445 255 255 255 255
0.726060 0.298196 0.134782 255 255 255 0
0.608738 0.034241 0.175643 188 187 188 35
0.567011 0.004168 0.351295 191 191 191 42
0.791120 -0.294417 -0.150038 252 252 252 246
-0.236240 0.719988 -0.012490 178 178 178 14
-0.559939 0.516369 0.397043 255 255 255 25
-0.990532 0.880724 0.144224 187 187 187 34
0.545103 -0.253764 -0.109117 197 197 198 155
0.614782 0.032020 0.527984 255 255 255 121
-0.241890 0.424347 0.496723 194 194 194 121
0.561839 -0.175494 0.256768 174 174 174 69
0.115955 0.875550 -0.116781 255 255 255 255
0.533024 -0.184243 0.198754 191 192 191 22
-0.663694 0.544258 0.231022 255 255 255 255
-0.522136 0.823581 0.459892 220 220 220 15
-0.816929 0.627093 0.450058 255 255 255 255
-0.080599 0.426432 0.481775 184 184 184 52
0.018179 -0.616526 0.081858 202 202 202 54
0.386734 -0.131533 0.432623 195 195 195 36
0.561092 -0.290727 -0.298067 193 193 193 27
0.529369 0.057939 0.622887 239 240 240 169
0.632741 0.219400 0.400997 255 255 255 255
0.627286 -0.269629 0.160142 193 193 193 50
0.205533 -0.556689 0.131977 186 186 186 74
0.220691 -0.552924 -0.225690 211 211 211 11
-0.778305 0.310356 -0.273616 226 226 226 71
0.299822 -0.370164 -0.717833 255 255 255 85
0.348060 -0.003397 0.602838 186 186 186 5
0.411293 -0.538287 0.108555 212 212 212 27
0.644271 -0.150243 0.549015 255 255 255 53
0.414468 -0.492748 -0.097388 209 209 209 43
0.564622 -0.183953 0.338912 189 189 189 172
0.284398 0.779628 0.191799 255 255 255 255
-0.612397 0.628947 -0.240100 255 255 255 255
-0.039986 -0.744002 -0.493859 247 247 247 212
0.385464 -0.305584 0.283751 185 185 185 36
-0.604967 -0.453985 0.387761 197 197 197 65
0.600205 -0.215443 0.604305 255 255 255 72
0.715014 0.189607 0.240171 255 255 255 255
0.979976 -0.060821 0.762328 137 137 137 255
0.499760 0.505813 0.369057 255 255 255 255
-0.883617 0.351330 -0.802194 255 255 255 255
0.636669 -0.148788 0.241563 201 201 201 58
0.256443 -0.448973 0.431757 199 199 199 86
0.410468 -0.072204 -0.575959 187 187 187 25
0.596488 0.060328 -0.529502 255 255 255 200
0.423618 -0.267412 -0.347474 195 195 195 12
0.539421 0.152700 -0.163889 192 192 192 70
0.342605 0.025655 -0.500257 203 203 203 32
-0.668275 0.573370 -0.222049 255 255 255 226
-0.796293 0.239486 0.218915 211 210 210 5
0.456903 -0.385896 -0.380662 203 203 203 91
0.625400 -0.188585 0.291678 228 228 228 7
-0.811603 0.459227 -0.815459 252 252 252 255
0.698889 -0.279678 0.445989 255 255 255 255
-0.207767 -0.717236 0.021167 167 167 167 21
0.386359 0.505706 0.511517 255 255 255 255
-0.005986 0.699788 -0.205919 194 194 194 48
0.501584 -0.321000 0.399266 190 190 190 21
0.309392 0.146320 -0.775054 253 253 253 188
0.582116 -0.333963 0.563025 255 255 255 188
0.689225 -0.206232 0.105623 214 214 214 16
-0.061950 -0.140662 -0.086792 191 191 191 117
-0.246341 0.698622 0.666338 254 254 254 61
0.616736 -0.125446 0.099466 195 195 195 22
-0.020034 -0.139529 -0.028351 189 189 189 64
-0.417548 0.743094 -0.470489 200 200 200 47
0.379737 0.475907 -0.532770 255 255 255 132
0.094651 0.163877 0.079623 175 175 175 54
-0.361873 0.806717 -0.506390 231 231 231 1
0.624768 -0.224260 0.085303 200 200 200 21
0.629877 -0.209092 0.560669 255 255 255 22
0.634492 0.463414 -0.110131 255 255 255 144
0.812199 -0.028948 -0.178672 255 255 255 66
0.994404 0.161524 0.279216 253 253 253 255
1.000000 0.183855 -0.221111 249 249 249 244
0.769026 -0.194062 -0.279084 255 255 255 255
-0.494554 0.182631 -0.875431 255 255 255 255
0.804690 -0.155288 0.243147 217 217 217 255
0.998023 0.197323 0.320691 254 254 254 255
-0.609709 -0.288157 -0.869862 252 252 252 255
0.449366 -0.613742 -0.363714 245 245 245 11
0.746823 -0.386807 -0.191626 255 255 255 211
-0.517277 0.539336 0.418131 255 255 255 255
0.995053 0.180410 0.625981 255 255 255 255
0.278937 0.120169 -0.261420 176 176 176 6
0.174165 0.318915 0.809624 243 243 243 181
0.953864 0.178877 -0.060575 209 209 209 150
0.211644 -0.657976 0.050277 179 179 179 50
0.681406 0.427947 0.146900 230 230 230 48
0.667906 -0.222112 0.149528 207 207 207 36
0.407830 -0.064693 0.525116 190 190 190 49
0.992363 0.186737 0.688533 255 255 255 184
0.969298 0.315588 0.941741 245 245 245 52
0.784630 -0.336478 0.126671 254 254 254 255
0.961891 -0.040105 0.844836 168 168 168 88
0.692092 -0.208603 -0.430066 255 255 255 255
0.511526 -0.153370 -0.301514 198 198 198 136
0.970870 -0.097488 0.869775 184 184 184 73
1.000000 0.151400 -0.824950 255 255 255 37
-0.345005 -0.692410 -0.614384 255 255 255 216
1.000000 0.174617 -0.936590 255 255 255 255
0.986024 0.153709 -0.907801 255 255 255 255
0.244525 0.523417 0.624060 255 255 255 255
0.474779 -0.425268 0.155731 206 206 206 136
0.538134 -0.275497 0.219798 199 199 199 131
0.954740 -0.071181 0.921648 204 204 204 202
0.989716 0.174006 -0.943485 255 255 255 255
0.704006 0.342808 0.067055 255 255 255 255
0.720543 -0.309821 -0.360491 255 255 255 38
1.000000 0.163309 -0.669304 255 255 255 255
0.980697 0.208192 -0.904414 248 248 248 255
0.822658 0.051959 -0.015907 255 255 255 255
0.993399 0.193388 0.902162 255 255 255 255
0.292878 0.733659 -0.303849 255 255 255 255
0.667559 -0.257229 -0.098451 205 205 205 17
0.119340 0.747239 0.098040 178 178 178 113
0.450268 -0.153585 0.333977 195 195 195 19
0.396902 0.701315 -0.148082 247 247 247 255
0.582968 -0.106932 -0.579949 255 255 255 98
1.000000 0.181253 -0.795734 252 252 252 255
0.999614 -0.048242 0.565757 125 125 125 131
0.418498 -0.083794 -0.489348 199 199 199 74
0.707524 -0.056285 0.430654 254 254 254 255
0.757080 -0.150203 0.337997 254 254 254 244
0.977484 -0.041138 0.854487 141 141 141 255
0.800452 -0.177717 -0.189335 255 255 255 176
0.755318 0.106271 -0.248541 255 255 255 254
0.961008 0.308781 0.666957 153 153 153 210
0.984648 -0.052823 0.368687 124 124 124 57
0.993070 0.209326 -0.192931 232 232 232 255
0.997278 0.156889 -0.539507 255 255 255 255
0.998358 0.190616 0.842948 255 255 255 255
0.757466 0.187844 -0.200827 253 253 253 180
0.830036 -0.105098 0.070289 255 255 255 255
0.996183 0.187786 -0.914506 255 255 255 255
0.996405 0.204995 -0.400188 255 255 255 103
0.675388 -0.148383 0.176973 203 203 203 53
0.977550 0.202301 -0.460103 255 255 255 255
